ply
format ascii 1.0
element vertex 1291
property float x
property float y
property float z
property uchar red
property uchar green
property uchar blue
end_header
16.7447 2.24153 14.7801  255 255 255
16.25 3.1808 14.8551  255 255 255
11.6859 5.0683 8.72284  255 255 255
10.0985 4.9713 14.3454  255 255 255
10.1385 3.13548 13.9745  255 255 255
11.7463 10.065 9.03577  255 255 255
16.4426 4.59463 9.23683  255 255 255
11.6582 3.3364 9.37211  255 255 255
22.4804 1.623 16.5377  255 255 255
20.3749 1.612 16.8779  255 255 255
16.7441 3.49016 9.58655  255 255 255
19.4477 1.54987 16.6094  255 255 255
11.4424 9.22153 7.87459  255 255 255
12.3685 3.14282 11.6628  255 255 255
11.6937 2.96894 11.0296  255 255 255
22.757 2.0389 22.7226  255 255 255
14.6443 5.98086 5.82196  255 255 255
-56.3101 -13.0135 -68.8942  255 255 255
11.674 8.02577 11.0218  255 255 255
9.99982 5.19734 14.6401  255 255 255
10.4967 12.221 18.1125  255 255 255
10.931 4.47324 1.93795  255 255 255
18.2979 1.26078 7.36311  255 255 255
13.0608 1.0654 -3.56312  255 255 255
12.8064 6.69384 -1.53898  255 255 255
12.5421 0.725303 -3.51684  255 255 255
12.4796 5.80201 2.77993  255 255 255
15.1665 7.69127 23.3739  255 255 255
15.1683 2.31649 23.6271  255 255 255
12.5471 6.95589 -0.133013  255 255 255
12.7926 6.8346 -1.70618  255 255 255
18.2979 1.3196 7.69089  255 255 255
12.833 6.35009 -3.0771  255 255 255
22.5725 2.45021 -0.871824  255 255 255
12.7451 7.42018 -1.30324  255 255 255
12.7451 7.42018 -1.30324  255 255 255
12.8344 7.26647 -2.20875  255 255 255
12.9665 7.27122 -4.47628  255 255 255
13.0276 7.11766 -4.18812  255 255 255
12.8286 6.84979 -2.12301  255 255 255
12.8636 6.79287 -2.45069  255 255 255
12.8478 6.69054 -2.33499  255 255 255
18.144 5.65647 3.05161  255 255 255
27.3448 5.91335 13.9303  255 255 255
21.3654 1.42828 5.17296  255 255 255
12.8541 8.23637 -3.68232  255 255 255
12.7651 6.83759 -1.43766  255 255 255
12.7879 6.83262 -1.70469  255 255 255
13.2145 7.10828 -6.98863  255 255 255
12.7886 7.0025 -1.79594  255 255 255
13.1206 2.71818 -3.73728  255 255 255
12.8481 7.20025 -2.51805  255 255 255
22.3524 2.98865 -0.746479  255 255 255
15.157 7.02928 23.3725  255 255 255
39.3665 28.5091 27.0217  255 255 255
-43.5985 -61.9876 -46.7038  255 255 255
10.9658 10.9242 24.5917  255 255 255
10.3146 6.80099 25.0422  255 255 255
13.1269 6.9871 -6.23852  255 255 255
13.4929 6.63669 -8.57158  255 255 255
22.5576 2.96912 4.15908  255 255 255
13.158 6.74279 -6.49651  255 255 255
23.9567 2.55852 3.7683  255 255 255
22.0674 2.48568 0.614302  255 255 255
17.7875 7.60435 -6.97024  255 255 255
15.5531 9.61289 -8.09025  255 255 255
20.4258 2.59179 -0.584564  255 255 255
22.8864 2.97172 3.28456  255 255 255
38.8173 32.9735 29.3262  255 255 255
9.87409 10.449 31.1682  255 255 255
16.3295 30.3812 31.607  255 255 255
38.5407 32.477 29.1721  255 255 255
38.5407 32.477 29.1721  255 255 255
15.6654 27.1588 31.9181  255 255 255
15.8207 27.1192 31.9043  255 255 255
15.9101 27.1812 31.8186  255 255 255
10.0335 10.5407 29.7538  255 255 255
-14.8951 14.4674 4.53633  255 255 255
9.97958 10.2699 30.1022  255 255 255
12.3789 28.0845 33.208  255 255 255
38.4119 32.8513 29.471  255 255 255
15.6507 27.3928 31.8876  255 255 255
9.85841 10.2082 31.1718  255 255 255
36.7669 2.26803 12.9584  255 255 255
15.8484 30.7305 31.3345  255 255 255
38.1143 30.7183 29.8202  255 255 255
14.5749 25.041 32.1942  255 255 255
9.85345 10.5584 31.6635  255 255 255
38.5099 29.789 27.5306  255 255 255
39.1811 28.9054 26.8718  255 255 255
40.9053 24.7875 29.9645  255 255 255
9.99778 11.0147 29.1182  255 255 255
11.5089 27.9805 31.8652  255 255 255
15.4692 27.2899 31.9811  255 255 255
14.6498 27.5432 31.7241  255 255 255
15.2382 27.0576 31.8631  255 255 255
15.1468 27.2454 31.7139  255 255 255
9.86502 10.4123 31.3768  255 255 255
40.3608 26.7773 29.0346  255 255 255
38.3711 30.3301 29.6434  255 255 255
41.2264 25.6104 29.1787  255 255 255
18.7347 13.6653 -4.65711  255 255 255
13.601 12.3029 -9.50506  255 255 255
12.998 7.04116 -4.81013  255 255 255
13.1267 7.0589 -6.09419  255 255 255
13.152 5.89451 -4.25933  255 255 255
23.79 1.55815 -1.42706  255 255 255
13.3807 6.81396 -8.23522  255 255 255
13.3874 6.81084 -8.21634  255 255 255
14.2111 5.6366 -9.3628  255 255 255
21.3598 2.52498 0.737774  255 255 255
11.5064 3.86537 -6.26051  255 255 255
11.5029 3.86742 -6.2574  255 255 255
22.0883 2.58173 0.407917  255 255 255
11.5302 3.56721 -6.22471  255 255 255
20.4321 2.96255 4.26456  255 255 255
23.5525 2.729 3.11752  255 255 255
23.6777 2.67404 2.89916  255 255 255
14.9605 9.75492 -9.05087  255 255 255
13.3792 7.13194 -9.38918  255 255 255
15.8906 1.58175 -13.1823  255 255 255
11.9195 8.25396 -9.55165  255 255 255
13.2455 7.09721 -7.7523  255 255 255
13.3917 7.22725 -9.52107  255 255 255
13.3645 6.51669 -9.10425  255 255 255
22.7248 3.27939 -0.865997  255 255 255
27.1702 4.93809 5.32361  255 255 255
23.94 2.53162 -1.73796  255 255 255
21.4812 2.55339 0.480256  255 255 255
13.9312 7.33698 -15.0283  255 255 255
13.2972 2.70788 -17.0609  255 255 255
18.4959 22.5081 -5.85804  255 255 255
18.4959 22.5081 -5.85804  255 255 255
14.1648 5.69107 -14.3727  255 255 255
21.5172 3.17683 -0.737493  255 255 255
22.5683 2.89619 -0.257731  255 255 255
16.7138 30.5336 31.7873  255 255 255
15.9594 30.3942 31.6203  255 255 255
37.5556 31.8114 30.2071  255 255 255
38.3274 31.9069 29.9315  255 255 255
38.3274 31.9069 29.9315  255 255 255
12.1981 27.6328 31.5766  255 255 255
12.1975 27.4345 31.0382  255 255 255
38.7911 29.9634 28.5495  255 255 255
14.841 25.5126 32.1724  255 255 255
14.8936 25.1594 32.2714  255 255 255
14.7187 25.1106 32.0567  255 255 255
14.667 25.2149 31.9503  255 255 255
9.87837 10.7524 33.3361  255 255 255
9.73405 10.6871 32.733  255 255 255
9.70855 10.3068 34.4952  255 255 255
9.84206 10.5413 32.7146  255 255 255
9.88809 10.6371 32.0321  255 255 255
46.3055 11.6324 28.3622  255 255 255
9.70835 10.3015 33.4318  255 255 255
9.77675 10.5182 31.7377  255 255 255
9.90403 10.4132 31.7171  255 255 255
9.90029 10.2286 32.2995  255 255 255
9.79974 9.9473 34.2214  255 255 255
9.79126 10.0889 32.8361  255 255 255
9.95918 9.74293 32.5556  255 255 255
9.82311 9.74139 32.3914  255 255 255
47.3209 9.94554 27.5164  255 255 255
46.7991 9.71156 27.8942  255 255 255
46.6223 8.91514 27.6214  255 255 255
41.0905 7.01836 32.4204  255 255 255
41.0101 5.62594 32.603  255 255 255
39.1842 30.7426 31.9963  255 255 255
43.1671 30.2508 31.4867  255 255 255
11.7427 28.2804 32.0689  255 255 255
43.3225 29.2805 31.5668  255 255 255
11.8072 27.7767 31.8909  255 255 255
16.0408 26.5022 32.0613  255 255 255
40.3172 28.1777 28.0386  255 255 255
42.513 25.5988 30.2628  255 255 255
42.513 25.5988 30.2628  255 255 255
9.80715 10.6594 33.0867  255 255 255
9.67632 10.3238 34.1077  255 255 255
9.90418 10.62 31.367  255 255 255
9.92288 10.6278 31.3917  255 255 255
9.92352 9.93469 32.9497  255 255 255
9.84909 9.8663 32.2175  255 255 255
40.8683 6.73769 32.6528  255 255 255
40.8722 5.97353 32.6071  255 255 255
40.5513 6.01453 32.9643  255 255 255
28.9803 3.0185 43.4092  255 255 255
13.5975 30.7499 34.6262  255 255 255
43.3727 30.1848 31.584  255 255 255
12.2807 27.492 30.8674  255 255 255
38.7389 28.2487 27.5777  255 255 255
42.8131 26.0749 30.3153  255 255 255
41.0006 6.08915 32.7255  255 255 255
41.0006 6.08915 32.7255  255 255 255
38.8661 2.30852 33.384  255 255 255
18.3501 4.50965 41.8027  255 255 255
15.7473 31.7097 33.2305  255 255 255
9.6281 10.5325 34.5313  255 255 255
9.66564 10.1342 34.252  255 255 255
9.70336 10.0834 33.8939  255 255 255
9.71176 10.0736 33.8951  255 255 255
9.79663 9.7249 32.7193  255 255 255
9.81635 9.67828 30.6646  255 255 255
41.0696 6.61142 32.6909  255 255 255
41.0696 6.61142 32.691  255 255 255
15.3499 30.3242 33.1993  255 255 255
41.5398 30.6371 32.3315  255 255 255
42.7952 29.8715 30.0571  255 255 255
43.5953 28.538 30.4433  255 255 255
9.66213 10.0666 33.1587  255 255 255
9.66213 10.0666 33.1587  255 255 255
41.0728 10.3709 28.9363  255 255 255
40.7325 6.47535 32.6222  255 255 255
40.7451 6.47965 32.6081  255 255 255
41.4014 6.46022 32.7171  255 255 255
41.4014 6.46022 32.7171  255 255 255
40.6388 6.05957 32.6778  255 255 255
41.3164 5.63173 32.7098  255 255 255
8.39259 4.78476 32.9046  255 255 255
8.4392 4.15659 32.9313  255 255 255
40.8412 2.22785 32.2295  255 255 255
28.3622 3.26671 45.4261  255 255 255
15.2242 31.5115 33.347  255 255 255
11.9706 28.5828 33.5851  255 255 255
12.4686 27.5438 30.9896  255 255 255
39.2061 28.1704 27.7176  255 255 255
29.3305 3.07627 44.0958  255 255 255
29.3305 3.07627 44.0959  255 255 255
15.6634 31.2981 33.2152  255 255 255
15.6315 26.6541 31.5218  255 255 255
15.6315 26.6541 31.5218  255 255 255
42.8234 28.2444 30.1959  255 255 255
40.0857 25.4181 29.7181  255 255 255
9.59177 10.0278 34.6176  255 255 255
39.5212 31.9843 30.7696  255 255 255
42.8991 30.9194 31.1056  255 255 255
14.9715 26.4929 31.8498  255 255 255
38.3972 29.0358 28.6331  255 255 255
13.3834 28.9682 33.1736  255 255 255
14.6514 27.996 33.5352  255 255 255
12.0464 28.2552 31.6978  255 255 255
14.4093 25.5735 32.3096  255 255 255
38.5744 30.421 28.8827  255 255 255
41.0845 6.39266 32.6319  255 255 255
50.3404 8.89913 -20.4736  255 255 255
13.9409 6.74113 -16.2812  255 255 255
13.9482 6.74021 -16.277  255 255 255
14.2355 5.74602 -19.2794  255 255 255
14.2269 5.58626 -12.6311  255 255 255
14.3687 5.68449 -20.6787  255 255 255
14.2658 5.06536 -20.194  255 255 255
14.0574 4.46298 -12.7231  255 255 255
13.8728 6.81106 -15.0032  255 255 255
13.8543 6.78814 -15.5598  255 255 255
14.011 6.7449 -16.4491  255 255 255
14.2802 5.66862 -19.9781  255 255 255
14.1301 4.49301 -12.9724  255 255 255
14.1301 4.49301 -12.9724  255 255 255
14.0693 5.78559 -13.025  255 255 255
14.1912 5.07679 -19.236  255 255 255
14.1912 5.07679 -19.236  255 255 255
14.2231 4.59374 -11.6319  255 255 255
13.8975 4.31845 -14.1658  255 255 255
13.8975 4.31845 -14.1658  255 255 255
14.0498 8.07999 -12.8232  255 255 255
12.2445 3.37751 -18.8567  255 255 255
15.4959 28.1836 -5.43685  255 255 255
15.9278 27.2444 -5.25191  255 255 255
15.9278 27.2444 -5.25191  255 255 255
10.0204 37.0226 -18.3249  255 255 255
16.0753 24.9378 -5.76848  255 255 255
15.3754 25.619 -5.80801  255 255 255
15.2486 25.2522 -5.57045  255 255 255
17.3766 21.685 -5.80825  255 255 255
17.3118 21.6339 -6.07151  255 255 255
13.7129 12.2541 -9.37891  255 255 255
11.8683 12.2674 -9.38943  255 255 255
12.484 12.0032 -9.39805  255 255 255
12.6068 11.9965 -9.87931  255 255 255
13.4222 11.4892 -9.40974  255 255 255
13.7298 11.3092 -9.39394  255 255 255
12.9876 11.3049 -9.37938  255 255 255
11.7308 10.1526 10.4239  255 255 255
11.6138 9.86856 10.5249  255 255 255
11.2889 9.01056 15.0336  255 255 255
11.5117 8.965 11.9538  255 255 255
11.6036 8.82773 12.256  255 255 255
11.6036 8.82773 12.256  255 255 255
11.6468 8.68826 10.9877  255 255 255
13.2371 7.94287 15.3216  255 255 255
11.9711 8.35103 7.95759  255 255 255
11.6235 8.14198 12.8554  255 255 255
11.9611 8.11039 7.71796  255 255 255
11.742 7.98021 10.5829  255 255 255
11.6507 7.84969 12.8682  255 255 255
11.8699 7.47833 15.2654  255 255 255
13.2041 7.34666 -7.28329  255 255 255
12.7204 7.02481 -1.25135  255 255 255
12.2909 7.00025 6.52584  255 255 255
12.2536 6.99955 6.52039  255 255 255
12.7157 6.87422 -0.512713  255 255 255
12.056 6.56435 7.20122  255 255 255
10.9836 6.40374 -0.996086  255 255 255
10.8177 4.34936 2.67005  255 255 255
11.213 3.86848 -1.67977  255 255 255
11.5642 4.24563 10.2482  255 255 255
11.5744 4.07704 10.2459  255 255 255
11.6138 2.97294 -7.45069  255 255 255
11.5088 2.9901 -6.46309  255 255 255
11.7043 2.7512 -6.45416  255 255 255
11.5893 3.76882 10.1387  255 255 255
11.5989 3.77069 10.1383  255 255 255
9.74633 3.84942 18.0538  255 255 255
10.0284 3.5091 13.7882  255 255 255
17.4227 3.1001 -3.31758  255 255 255
11.6417 3.05913 10.8582  255 255 255
10.7489 2.9396 11.6604  255 255 255
16.4464 3.71122 10.2572  255 255 255
-14.3241 -4.3999 -12.962  255 255 255
17.7525 2.6076 -3.27518  255 255 255
16.3167 2.96583 15.1038  255 255 255
21.1962 2.42193 0.357185  255 255 255
21.1972 1.6991 3.09043  255 255 255
19.922 1.55032 6.59999  255 255 255
18.0209 1.36157 11.1527  255 255 255
15.7418 27.1261 -5.03549  255 255 255
16.8488 22.6503 -5.94469  255 255 255
-16.6414 20.7244 16.5582  255 255 255
11.7229 9.76527 10.142  255 255 255
10.8922 9.06591 19.4035  255 255 255
11.6022 8.71736 11.5552  255 255 255
12.2729 6.86496 6.59207  255 255 255
13.7281 6.48783 -11.1911  255 255 255
12.9701 6.43312 -3.98211  255 255 255
12.1909 6.10447 7.0999  255 255 255
12.0051 5.69553 6.03452  255 255 255
10.8249 3.56981 2.52082  255 255 255
10.941 3.74947 14.4527  255 255 255
12.1252 3.39979 7.85491  255 255 255
11.4922 3.08924 10.0107  255 255 255
16.2942 3.77244 10.4518  255 255 255
16.2942 3.77244 10.4518  255 255 255
11.5593 2.85558 13.5492  255 255 255
12.5608 0.93034 -2.6504  255 255 255
21.654 2.58903 0.67949  255 255 255
16.1755 27.0819 -5.3525  255 255 255
15.5742 24.4005 -5.16834  255 255 255
11.4026 11.5073 13.0307  255 255 255
12.6292 12.1409 -9.39103  255 255 255
11.9122 9.82829 -9.56047  255 255 255
12.4005 9.22039 -9.36396  255 255 255
11.9874 8.68654 6.41972  255 255 255
16.4698 7.01383 9.55221  255 255 255
12.2799 6.85442 6.45071  255 255 255
9.57144 3.87661 18.8721  255 255 255
10.0205 3.3102 13.8705  255 255 255
12.8235 2.04973 -3.83517  255 255 255
20.1916 1.54693 6.2685  255 255 255
19.9417 1.38152 6.54055  255 255 255
17.206 28.0146 -6.0437  255 255 255
17.206 28.0147 -6.04375  255 255 255
15.7823 27.8668 -5.33032  255 255 255
15.7992 27.8597 -5.31743  255 255 255
15.1297 25.2935 -6.22305  255 255 255
16.5647 22.9109 -5.4972  255 255 255
10.9264 11.7563 17.2859  255 255 255
11.8381 8.81484 7.59697  255 255 255
11.5063 8.21733 15.265  255 255 255
11.46 8.10984 13.0854  255 255 255
16.4693 7.03391 10.1794  255 255 255
12.6876 6.77535 -0.316909  255 255 255
11.5319 3.87845 -1.20303  255 255 255
10.9309 1.92977 0.673845  255 255 255
17.4518 28.0927 -5.07287  255 255 255
15.6654 26.8363 -4.96021  255 255 255
15.3557 26.6156 -4.78086  255 255 255
16.662 22.2652 -5.68847  255 255 255
9.93435 5.44361 15.4176  255 255 255
10.9607 3.73603 1.28823  255 255 255
16.2371 2.03335 13.8882  255 255 255
16.2371 2.03335 13.8882  255 255 255
17.4137 27.6807 -5.17626  255 255 255
16.4331 22.9472 -6.60969  255 255 255
17.9974 18.6752 -6.62114  255 255 255
17.5335 2.21465 7.69383  255 255 255
15.6716 28.7139 -5.67453  255 255 255
15.5605 26.5604 -5.08739  255 255 255
15.4084 26.844 -5.29749  255 255 255
12.317 2.66405 -2.46957  255 255 255
10.7933 2.81237 4.46188  255 255 255
17.3442 26.6437 -5.92487  255 255 255
18.2502 21.7544 -6.49224  255 255 255
12.1378 7.70195 15.5337  255 255 255
11.0396 4.18932 3.04987  255 255 255
17.0613 28.0787 -4.78816  255 255 255
16.7989 27.7317 -4.72032  255 255 255
15.3454 26.4922 -5.8283  255 255 255
11.2853 5.03312 -0.30175  255 255 255
10.4222 5.00062 13.6061  255 255 255
20.9614 2.67389 5.97272  255 255 255
16.9864 1.47892 13.6002  255 255 255
16.1293 28.2383 -6.18363  255 255 255
11.2564 4.78788 5.31231  255 255 255
15.6721 25.5089 -6.31623  255 255 255
15.6721 25.5088 -6.31622  255 255 255
16.333 23.2927 -5.3614  255 255 255
15.0598 11.2749 -7.90425  255 255 255
16.2887 1.40108 13.2055  255 255 255
11.6624 4.28238 7.10247  255 255 255
19.8472 1.5855 6.77717  255 255 255
12.2648 7.76471 2.00576  255 255 255
15.2836 25.515 -5.55338  255 255 255
13.5637 12.1496 -9.36178  255 255 255
11.7565 10.2497 9.98171  255 255 255
11.8255 10.239 9.63108  255 255 255
11.6996 9.35967 11.0504  255 255 255
11.6321 8.66109 11.4349  255 255 255
11.6305 8.66413 11.4344  255 255 255
11.8682 8.71797 9.03264  255 255 255
12.0875 8.59057 6.27673  255 255 255
12.9618 8.32939 -3.77204  255 255 255
16.4741 7.49513 10.1443  255 255 255
12.949 8.0842 -3.83807  255 255 255
12.7686 6.83725 -1.43829  255 255 255
12.7046 6.71321 -0.519571  255 255 255
13.3368 6.44867 3.79214  255 255 255
11.8521 5.40726 -1.77709  255 255 255
11.6774 4.86561 9.60619  255 255 255
11.0366 4.43909 1.33021  255 255 255
11.6601 4.71042 9.33434  255 255 255
11.5986 4.4178 10.2466  255 255 255
12.6843 3.60292 7.38343  255 255 255
16.4108 3.94519 10.3251  255 255 255
10.9629 1.4363 0.466286  255 255 255
11.119 1.18443 0.0673647  255 255 255
16.5041 2.20302 14.2351  255 255 255
18.4131 1.14278 7.45473  255 255 255
-27.8286 -45.8867 -48.514  255 255 255
15.8545 28.6154 -5.85572  255 255 255
15.6362 27.2287 -4.93424  255 255 255
14.9135 25.7528 -6.12418  255 255 255
10.8515 9.86976 19.7123  255 255 255
10.9073 9.84059 19.1868  255 255 255
10.9494 9.19702 18.8427  255 255 255
12.8152 7.98165 -3.20414  255 255 255
12.6605 6.77641 -0.0790811  255 255 255
13.1827 6.51905 -6.97079  255 255 255
9.98096 5.39498 15.4744  255 255 255
11.375 4.22787 -1.37845  255 255 255
11.6737 3.28438 9.10282  255 255 255
16.3914 2.0806 13.7793  255 255 255
20.0826 1.64836 6.37612  255 255 255
16.6759 28.2415 -4.64107  255 255 255
14.8555 25.9126 -6.04275  255 255 255
14.9579 25.3314 -6.4136  255 255 255
10.8633 9.38959 19.5876  255 255 255
11.8169 8.86219 9.46606  255 255 255
11.7705 8.72425 9.76586  255 255 255
11.8069 8.7136 9.46964  255 255 255
12.1775 7.84905 6.30801  255 255 255
11.4754 3.88033 11.9008  255 255 255
13.8898 2.85276 10.7936  255 255 255
20.1314 1.32909 6.27505  255 255 255
16.3572 26.9062 -4.84826  255 255 255
15.6575 26.0724 -6.24503  255 255 255
11.0138 4.67286 0.494369  255 255 255
9.97696 3.74488 13.7453  255 255 255
15.9494 26.9536 -5.29045  255 255 255
15.3762 27.4066 -5.44234  255 255 255
11.7757 10.3438 9.97951  255 255 255
12.2385 8.54048 6.23543  255 255 255
16.6292 1.76636 14.9691  255 255 255
9.89331 5.11467 14.1064  255 255 255
9.48025 3.19752 20.2862  255 255 255
15.8812 26.3048 -4.99786  255 255 255
14.1409 5.37583 -18.1943  255 255 255
23.2005 3.46407 -0.770054  255 255 255
14.7974 11.9251 -8.21864  255 255 255
13.657 7.82895 -14.586  255 255 255
20.0136 17.1539 -3.76311  255 255 255
-6.17611 17.3583 20.3523  255 255 255
-9.56383 15.3997 16.7974  255 255 255
11.4612 12.1173 -9.24111  255 255 255
10.8448 10.1482 19.6959  255 255 255
11.1687 11.6566 -9.23236  255 255 255
10.9407 9.78274 19.3794  255 255 255
11.8745 9.33046 8.93836  255 255 255
11.7345 9.15057 11.1681  255 255 255
10.9349 8.79613 19.1415  255 255 255
11.9602 8.10709 7.97791  255 255 255
12.85 7.37388 -2.02202  255 255 255
21.2373 6.53893 20.5671  255 255 255
10.2066 6.50396 17.6656  255 255 255
12.4901 5.95031 3.73825  255 255 255
13.3801 5.85554 -2.50915  255 255 255
11.1611 4.65299 0.597209  255 255 255
11.5591 4.53526 9.92893  255 255 255
11.7266 3.5382 7.71704  255 255 255
11.7343 3.07056 12.9571  255 255 255
15.3608 2.39698 23.7579  255 255 255
17.8279 1.78025 22.3108  255 255 255
-55.8569 -68.2837 -63.0225  255 255 255
13.5411 29.4596 9.53561  255 255 255
17.0474 13.3921 16.9337  255 255 255
10.9947 9.31886 18.4207  255 255 255
10.9343 8.8435 19.2536  255 255 255
10.9335 8.83555 19.0158  255 255 255
10.9329 8.84023 19.0158  255 255 255
11.5078 8.77894 12.0623  255 255 255
11.6131 3.0407 9.64879  255 255 255
11.9315 2.90035 9.31838  255 255 255
11.558 2.85575 13.5412  255 255 255
17.8835 1.5701 13.8503  255 255 255
18.963 1.85514 22.1872  255 255 255
2.98386 -16.6291 6.15304  255 255 255
10.6133 19.1628 17.3184  255 255 255
11.8998 10.3211 8.11306  255 255 255
10.9364 9.35642 19.2359  255 255 255
11.7876 9.4709 9.78513  255 255 255
15.6803 7.36236 11.8259  255 255 255
9.99569 4.90368 14.051  255 255 255
11.1635 4.14684 12.8232  255 255 255
16.4672 1.77358 13.7745  255 255 255
17.5766 1.76454 18.3605  255 255 255
15.1382 6.57091 23.2409  255 255 255
9.49598 6.40826 19.9263  255 255 255
15.2849 5.58901 23.6139  255 255 255
9.49859 4.82923 19.0108  255 255 255
9.90608 2.30173 18.4372  255 255 255
16.3671 1.63878 15.3555  255 255 255
9.70203 6.88258 17.7278  255 255 255
16.7222 6.05568 9.59007  255 255 255
11.6094 4.66472 10.1132  255 255 255
9.72545 3.45193 18.2098  255 255 255
11.4259 3.00544 11.0982  255 255 255
9.56257 2.3161 19.0854  255 255 255
9.54787 2.31394 19.0848  255 255 255
17.9821 1.84984 7.85727  255 255 255
16.6426 1.91187 22.3945  255 255 255
10.8935 7.2521 13.2989  255 255 255
9.48159 6.5973 20.2075  255 255 255
9.72432 6.42896 17.7446  255 255 255
15.7339 1.78642 17.1387  255 255 255
9.67651 5.94672 19.6118  255 255 255
9.35959 5.87366 18.319  255 255 255
9.35958 5.87366 18.319  255 255 255
9.47867 4.795 19.6106  255 255 255
9.57481 3.1599 18.4755  255 255 255
16.7709 1.48929 13.2303  255 255 255
14.8013 3.24487 12.2041  255 255 255
7.20007 10.9215 31.4141  255 255 255
9.87365 10.3726 31.7116  255 255 255
7.17649 10.9802 31.7198  255 255 255
10.7133 18.9175 17.3252  255 255 255
9.4449 11.3002 23.8055  255 255 255
13.6551 11.55 -9.26479  255 255 255
11.0696 10.1555 17.6048  255 255 255
10.8888 9.62988 19.4951  255 255 255
11.6878 9.74394 10.9951  255 255 255
11.8856 9.60412 8.67609  255 255 255
11.7966 9.46654 8.56953  255 255 255
11.7303 8.35775 10.5294  255 255 255
15.7646 6.25834 1.94885  255 255 255
9.71348 6.58318 19.9164  255 255 255
9.43465 6.40192 20.3329  255 255 255
13.2029 5.72427 -2.67972  255 255 255
11.4591 5.57641 -0.561423  255 255 255
13.3397 5.4593 -4.06148  255 255 255
10.8608 5.38765 1.67478  255 255 255
9.49709 5.12702 19.1631  255 255 255
11.5659 4.84301 9.85254  255 255 255
10.7725 3.3769 2.81016  255 255 255
9.91952 3.98291 14.2138  255 255 255
9.92886 3.97773 14.216  255 255 255
11.578 3.9106 10.2401  255 255 255
11.5731 3.76121 9.84947  255 255 255
10.0157 3.79854 13.9544  255 255 255
20.0013 1.35683 6.49268  255 255 255
-137.832 -134.939 -80.8525  255 255 255
13.7692 11.7816 -9.27145  255 255 255
12.8852 11.8579 -9.39481  255 255 255
11.5009 10.5334 12.6176  255 255 255
11.0076 10.2246 18.1999  255 255 255
10.7896 10.7733 -9.27666  255 255 255
11.7696 8.69288 9.75961  255 255 255
12.2456 7.60912 8.82221  255 255 255
9.38703 6.48231 20.4402  255 255 255
9.59053 5.11886 18.8547  255 255 255
11.6787 3.42905 9.10627  255 255 255
12.4811 12.2817 -9.32129  255 255 255
10.9822 9.43183 18.0679  255 255 255
11.0203 8.81292 18.4379  255 255 255
9.61352 2.3218 20  255 255 255
17.5234 1.40138 13.853  255 255 255
11.5016 11.296 13.1526  255 255 255
11.6528 7.87431 12.9232  255 255 255
11.6381 7.87866 12.9184  255 255 255
14.8025 6.21021 14.4195  255 255 255
9.93706 5.39209 15.4502  255 255 255
11.5513 4.79578 9.49427  255 255 255
9.55526 3.90006 19.0447  255 255 255
9.55527 3.90006 19.0447  255 255 255
9.9207 6.79759 15.3469  255 255 255
11.633 4.35705 9.79069  255 255 255
11.4604 10.5725 12.4699  255 255 255
11.8643 10.2344 9.01197  255 255 255
11.7314 11.6544 -9.32561  255 255 255
10.9384 11.044 -9.47485  255 255 255
11.0147 11.0853 -9.40326  255 255 255
12.8853 10.4744 -9.84824  255 255 255
11.8553 9.42057 8.84174  255 255 255
11.8832 9.27322 8.67729  255 255 255
11.8538 8.71639 9.03965  255 255 255
11.9357 8.66743 8.45144  255 255 255
11.6775 8.35422 12.1562  255 255 255
11.9226 8.47934 8.02531  255 255 255
11.6489 7.96304 12.8127  255 255 255
12.3199 7.04291 6.42024  255 255 255
12.9637 7.12326 -4.95971  255 255 255
13.3872 7.00766 -9.51732  255 255 255
13.2123 6.76232 -7.73499  255 255 255
12.7473 6.70581 -0.768888  255 255 255
12.7033 6.714 -0.519137  255 255 255
13.7053 6.17395 -11.2831  255 255 255
12.5439 4.98867 -2.75496  255 255 255
11.4763 3.56954 -5.76149  255 255 255
11.6617 4.14049 7.84792  255 255 255
11.9351 2.82575 6.10141  255 255 255
10.8912 1.50587 1.80786  255 255 255
11.1809 1.1509 -0.709313  255 255 255
22.7 2.25192 -0.445978  255 255 255
23.7116 2.91693 3.44583  255 255 255
23.2182 2.39685 4.53545  255 255 255
24.0642 2.59824 3.90503  255 255 255
16.5921 13.1411 9.49307  255 255 255
19.4317 8.29265 9.73769  255 255 255
12.4759 11.9394 -9.61453  255 255 255
14.3961 10.8247 -9.20834  255 255 255
12.3556 7.60162 8.6437  255 255 255
16.5294 6.9851 9.57597  255 255 255
16.5294 6.9851 9.57598  255 255 255
12.7322 6.75219 -0.774765  255 255 255
12.172 6.5791 6.57883  255 255 255
12.4718 5.35363 -4.05264  255 255 255
9.8611 5.33157 14.8575  255 255 255
10.7745 3.48832 1.11102  255 255 255
16.4631 3.94814 10.3177  255 255 255
11.8398 2.96297 8.29588  255 255 255
16.4651 3.85298 10.2516  255 255 255
16.1001 1.6638 -12.7834  255 255 255
16.4626 3.55298 9.60216  255 255 255
10.7913 1.49946 2.88525  255 255 255
18.2977 1.26074 7.36312  255 255 255
16.5468 7.01325 10.1558  255 255 255
12.9922 6.35991 -4.4001  255 255 255
20.4117 2.89714 4.98714  255 255 255
24.1644 2.41072 3.85592  255 255 255
23.2382 1.53145 4.60778  255 255 255
8.39769 -12.1194 -5.74641  255 255 255
16.4542 7.00722 9.55671  255 255 255
14.0957 5.64669 -14.3344  255 255 255
9.92811 4.34371 14.2752  255 255 255
16.4598 3.66931 9.69254  255 255 255
18.24 1.19982 7.90729  255 255 255
17.9681 21.7454 -6.78123  255 255 255
17.5356 21.8304 -6.51334  255 255 255
10.0942 4.52049 13.8308  255 255 255
10.9248 2.99038 0.685131  255 255 255
11.8679 2.23445 5.03631  255 255 255
18.3163 1.03622 7.72262  255 255 255
9.82978 4.10349 14.155  255 255 255
11.3864 2.38741 -6.78122  255 255 255
11.6565 1.85668 4.64718  255 255 255
10.8492 1.42165 2.78334  255 255 255
11.3667 1.41878 5.5795  255 255 255
24.1299 2.55956 3.88985  255 255 255
17.2794 22.6815 -6.77079  255 255 255
17.2794 22.6815 -6.77082  255 255 255
14.4769 1.44961 -14.028  255 255 255
16.4942 3.65872 10.1771  255 255 255
9.84182 4.64332 14.4923  255 255 255
16.2097 24.1578 -7.46858  255 255 255
11.8485 10.0687 7.30568  255 255 255
11.6518 10.1236 7.28685  255 255 255
11.9757 7.84983 7.55117  255 255 255
10.6381 4.71028 -9.71099  255 255 255
9.70333 4.63344 14.5417  255 255 255
12.0423 3.79803 7.95847  255 255 255
12.5634 3.21809 7.55105  255 255 255
16.1515 7.31191 9.2917  255 255 255
11.1691 9.44531 6.24372  255 255 255
13.3704 5.86005 -7.35978  255 255 255
11.65 2.46454 5.38934  255 255 255
23.4081 2.46466 3.48183  255 255 255
13.099 11.0352 -8.84733  255 255 255
16.8561 21.3966 -5.01092  255 255 255
13.5808 4.60878 -9.48343  255 255 255
15.1935 26.2866 -5.07048  255 255 255
11.7265 11.4085 -9.31268  255 255 255
11.7955 9.10141 8.62434  255 255 255
11.8749 8.99254 8.92823  255 255 255
11.5936 8.82671 12.2479  255 255 255
11.675 8.92492 10.0638  255 255 255
11.7967 8.8461 9.9225  255 255 255
11.7868 8.85211 9.61889  255 255 255
11.7475 8.03008 12.8501  255 255 255
11.6157 7.9692 12.8253  255 255 255
12.7843 7.93092 -1.758  255 255 255
12.7136 7.38769 -0.957906  255 255 255
11.6501 4.7105 9.34798  255 255 255
11.5602 2.88975 -7.28976  255 255 255
10.9931 3.3634 1.54095  255 255 255
11.7054 3.39633 8.98129  255 255 255
11.5761 3.4027 9.66709  255 255 255
13.0267 0.220489 -19.5164  255 255 255
11.0182 1.58093 0.502185  255 255 255
16.6954 22.018 -5.54795  255 255 255
11.6951 10.4629 9.92836  255 255 255
11.7643 9.39986 9.7793  255 255 255
11.5703 8.14562 13.2989  255 255 255
13.4795 7.68528 -15.5236  255 255 255
13.1122 7.00719 -7.6312  255 255 255
12.0713 6.56921 7.43013  255 255 255
11.1199 6.21895 13.286  255 255 255
11.9245 5.65455 8.13002  255 255 255
11.5058 4.03911 -6.19005  255 255 255
13.0083 2.39607 -3.80585  255 255 255
16.4186 3.72954 9.59839  255 255 255
12.1398 1.3397 7.27926  255 255 255
18.3489 1.12906 7.47634  255 255 255
20.2229 1.27897 6.26293  255 255 255
11.9252 8.2128 9.57597  255 255 255
11.9861 8.23479 7.65321  255 255 255
11.6495 4.26726 9.34909  255 255 255
16.3984 3.79578 9.67522  255 255 255
11.4346 8.92079 12.6403  255 255 255
16.6361 7.44641 10.1054  255 255 255
11.9773 6.29166 8.07259  255 255 255
14.0124 4.14498 -14.8897  255 255 255
11.3079 2.46443 -0.945052  255 255 255
11.664 3.26118 8.94123  255 255 255
18.2671 1.18117 7.52978  255 255 255
18.1934 1.19112 8.25475  255 255 255
18.1934 1.19112 8.25475  255 255 255
24.0198 2.93035 3.74089  255 255 255
17.941 18.7273 -6.66697  255 255 255
13.1974 7.20977 -9.14304  255 255 255
12.26 3.60249 -22.4403  255 255 255
11.7582 3.40632 -5.6908  255 255 255
11.7582 3.40632 -5.6908  255 255 255
11.3195 3.17616 -6.52395  255 255 255
11.2417 2.58627 -1.3197  255 255 255
12.6377 2.72044 7.43235  255 255 255
12.0652 1.3606 6.62876  255 255 255
18.2501 1.20485 7.90582  255 255 255
19.3952 1.06473 7.46829  255 255 255
16.9466 22.5713 -6.57182  255 255 255
21.6767 1.12973 5.64629  255 255 255
15.4307 24.8964 -5.56132  255 255 255
15.4307 24.8964 -5.56132  255 255 255
11.7793 2.97296 8.65393  255 255 255
11.0813 2.20197 4.52828  255 255 255
11.9107 1.12775 6.07607  255 255 255
17.1661 22.347 -6.71124  255 255 255
15.0296 9.37463 9.57345  255 255 255
11.9567 2.0231 5.97869  255 255 255
15.8108 26.1168 -4.83645  255 255 255
15.839 24.415 -5.92027  255 255 255
12.766 9.62783 -9.4287  255 255 255
12.3559 5.96324 5.026  255 255 255
16.4963 3.6191 9.94606  255 255 255
20.4458 1.14855 6.14748  255 255 255
11.4911 4.57503 5.39145  255 255 255
11.6585 3.89905 8.76743  255 255 255
13.7178 2.74466 -14.743  255 255 255
17.0064 13.2987 16.8131  255 255 255
11.8554 10.2201 9.41361  255 255 255
12.0013 8.47228 7.38491  255 255 255
12.241 5.30912 -0.4225  255 255 255
11.6502 4.6857 10.2547  255 255 255
10.0313 4.26984 13.7764  255 255 255
12.2123 3.5315 7.15614  255 255 255
11.5892 3.39487 9.51039  255 255 255
11.3854 2.88098 10.6503  255 255 255
9.82994 2.88133 17.6308  255 255 255
16.2802 2.53411 15.2986  255 255 255
16.2394 2.07044 15.3028  255 255 255
16.2394 2.07044 15.3028  255 255 255
16.0631 1.67977 15.3288  255 255 255
9.9572 9.16101 29.5826  255 255 255
9.9421 9.16275 29.5878  255 255 255
10.8764 9.40845 20.0327  255 255 255
11.9372 8.20931 9.68702  255 255 255
11.8499 7.40677 7.85003  255 255 255
10.2353 6.6779 25.1575  255 255 255
11.8875 1.97563 8.39836  255 255 255
15.3397 2.93177 25.2919  255 255 255
17.8566 1.54159 13.6511  255 255 255
16.4015 2.06319 24.5334  255 255 255
10.2431 10.9902 25.2228  255 255 255
11.6432 8.99196 12.2036  255 255 255
17.4102 1.57988 16.3866  255 255 255
15.1847 7.83145 23.2467  255 255 255
10.2666 3.20826 25.3135  255 255 255
20.8018 1.97341 21.815  255 255 255
10.047 11.0736 29.0185  255 255 255
10.0288 11.0591 28.5659  255 255 255
10.3011 3.03038 25.1723  255 255 255
10.356 3.04024 25.1667  255 255 255
16.5438 2.33507 14.3962  255 255 255
15.3006 3.22708 25.3605  255 255 255
15.3186 2.17172 25.2456  255 255 255
16.9146 11.7797 16.9447  255 255 255
16.9146 11.7797 16.9447  255 255 255
10.363 8.11111 28.966  255 255 255
11.9178 7.58271 12.9054  255 255 255
9.47526 3.49659 19.9383  255 255 255
15.3646 3.06674 25.2528  255 255 255
15.3632 3.14675 26.8537  255 255 255
10.1244 7.81439 28.7957  255 255 255
19.9702 1.94244 22.5522  255 255 255
9.92269 6.96631 29.306  255 255 255
9.64521 4.68635 18.4365  255 255 255
16.3465 1.70465 13.9666  255 255 255
10.0352 7.72999 28.6942  255 255 255
10.1745 8.51252 28.5157  255 255 255
12.8566 2.90594 13.6954  255 255 255
12.7015 8.37018 17.0399  255 255 255
16.3556 10.7157 13.4757  255 255 255
12.7711 7.0229 -0.541235  255 255 255
11.3278 3.59207 13.5687  255 255 255
16.6275 1.90787 21.7758  255 255 255
9.96971 7.1652 15.048  255 255 255
16.1649 5.90595 10.1647  255 255 255
11.6514 2.57729 -0.965956  255 255 255
11.6503 7.97013 10.5963  255 255 255
12.3386 6.10596 7.0354  255 255 255
19.5918 1.42002 16.0225  255 255 255
22.2247 1.90176 22.4732  255 255 255
16.1239 2.95313 15.241  255 255 255
11.9837 8.01771 15.1629  255 255 255
16.1825 1.91738 15.4391  255 255 255
22.8449 1.81695 22.0511  255 255 255
12.2698 7.31273 6.38883  255 255 255
42.0595 -1.85526 -51.6344  255 255 255
41.961 -1.7967 -51.188  255 255 255
-3.13648 8.51541 5.67203  255 255 255
15.2642 7.32203 23.1475  255 255 255
10.1202 6.24375 15.5137  255 255 255
10.8415 3.69905 2.44478  255 255 255
40.7634 -0.18457 -46.6787  255 255 255
11.2871 8.93866 15.1671  255 255 255
50.9408 9.1313 -33.9485  255 255 255
43.0819 9.17508 0.894553  255 255 255
10.9406 8.94717 19.1102  255 255 255
22.6714 2.50361 -0.581101  255 255 255
13.0778 7.17726 -5.2581  255 255 255
9.47781 6.59999 22.3864  255 255 255
9.72683 2.59368 19.1633  255 255 255
-75.226 -95.299 -65.3738  255 255 255
41.4973 1.03733 8.10878  255 255 255
17.0343 25.9386 -58.8799  255 255 255
13.258 6.6707 -7.68831  255 255 255
13.2563 6.66855 -7.68787  255 255 255
19.984 6.33615 -9.52286  255 255 255
9.82835 9.90288 32.114  255 255 255
9.92283 9.56658 30.8443  255 255 255
43.7558 8.43678 23.4506  255 255 255
30.0785 1.97027 23.332  255 255 255
9.98477 10.2731 30.1047  255 255 255
49.0758 8.91795 -6.11036  255 255 255
48.9941 8.53267 -6.89194  255 255 255
21.0137 1.83487 5.78374  255 255 255
39.4058 26.6736 1.87242  255 255 255
39.3984 26.6715 1.8825  255 255 255
9.8906 10.5353 30.9634  255 255 255
13.8486 6.84994 -11.431  255 255 255
-18.7347 10.0948 -91.0451  255 255 255
12.2447 3.29081 -12.4873  255 255 255
13.0638 7.41261 -5.31579  255 255 255
43.2428 31.0493 31.3271  255 255 255
38.8095 30.8064 27.7267  255 255 255
41.1696 24.8541 29.9369  255 255 255
45.9936 9.19156 28.7571  255 255 255
9.54185 7.26076 28.6578  255 255 255
9.64842 4.71679 12.7917  255 255 255
17.5231 4.55728 42.0336  255 255 255
39.4085 2.35541 36.5798  255 255 255
20.42 3.38513 45.9954  255 255 255
11.728 29.7623 33.8336  255 255 255
11.5909 29.5766 33.7158  255 255 255
40.5622 30.8662 31.27  255 255 255
37.8635 30.4746 28.0776  255 255 255
38.328 29.4484 28.8869  255 255 255
41.6214 27.0438 29.8869  255 255 255
42.4351 27.2387 29.1538  255 255 255
15.7542 26.775 10.0318  255 255 255
14.9381 28.8219 -8.12365  255 255 255
9.74225 10.6371 36.3911  255 255 255
1.37196 13.1388 21.8936  255 255 255
9.84092 10.6935 34.2023  255 255 255
9.68866 10.3542 35.6295  255 255 255
9.59776 10.3385 34.8002  255 255 255
10.1604 11.2419 28.8294  255 255 255
9.86882 10.2765 31.9091  255 255 255
41.659 10.4536 17.9761  255 255 255
46.074 8.90814 31.5098  255 255 255
10.1312 8.48611 28.6931  255 255 255
41.1093 6.80697 32.7964  255 255 255
42.321 5.9525 23.9966  255 255 255
38.9235 2.48451 33.4409  255 255 255
11.478 29.7763 33.7826  255 255 255
11.2334 29.3435 33.4611  255 255 255
11.3048 29.2435 33.5572  255 255 255
11.2621 29.0961 33.4537  255 255 255
38.5011 31.6434 30.1107  255 255 255
40.4767 30.5741 31.1051  255 255 255
11.5597 28.4038 31.7262  255 255 255
11.5597 28.4038 31.7262  255 255 255
14.9533 25.7902 32.1398  255 255 255
14.8077 27.2638 -5.60524  255 255 255
9.77679 11.2964 36.4885  255 255 255
45.7527 12.3249 31.7766  255 255 255
9.41109 10.6962 37.3478  255 255 255
9.58936 10.6864 37.0207  255 255 255
9.62235 10.6125 34.7715  255 255 255
9.47945 10.2403 36.6288  255 255 255
9.47945 10.2403 36.6288  255 255 255
9.94347 10.4357 30.6188  255 255 255
14.8341 10.2182 31.0095  255 255 255
42.334 1.8287 18.5366  255 255 255
17.8926 5.22862 41.1866  255 255 255
10.1004 4.1113 37.061  255 255 255
19.2862 4.54689 41.0434  255 255 255
18.3603 4.51014 41.8196  255 255 255
43.1893 29.7149 31.6676  255 255 255
43.1893 29.7149 31.6676  255 255 255
38.2496 28.7871 28.3593  255 255 255
9.51138 11.425 37.2626  255 255 255
9.43105 10.8685 37.1635  255 255 255
9.43047 10.48 37.2815  255 255 255
9.43047 10.48 37.2815  255 255 255
9.86408 10.0117 31.7264  255 255 255
9.90893 9.49671 34.1564  255 255 255
39.9883 6.80617 33.3948  255 255 255
40.7274 5.67826 32.675  255 255 255
9.84458 3.06288 31.9163  255 255 255
10.2955 4.05246 36.7954  255 255 255
20.5795 4.35869 40.105  255 255 255
21.4525 3.93873 39.5408  255 255 255
17.7071 4.54322 42.1648  255 255 255
38.602 2.47551 37.1973  255 255 255
41.8204 30.6468 31.9058  255 255 255
12.6795 27.6861 34.0465  255 255 255
37.743 30.2564 29.6426  255 255 255
9.69522 9.79761 34.1446  255 255 255
9.37147 9.05978 37.2315  255 255 255
46.078 8.96127 28.3874  255 255 255
9.7004 5.80218 13.8607  255 255 255
41.4805 6.03943 32.6704  255 255 255
42.0483 3.94024 24.2416  255 255 255
18.1809 4.46958 41.8951  255 255 255
38.8928 2.59822 36.6682  255 255 255
20.1477 4.60567 43.975  255 255 255
11.1967 29.6381 33.5634  255 255 255
16.5591 28.5601 31.374  255 255 255
16.5591 28.5601 31.374  255 255 255
39.6264 29.602 29.4874  255 255 255
42.3833 27.2666 29.5342  255 255 255
46.031 10.3144 27.9227  255 255 255
9.3337 8.44644 36.135  255 255 255
10.0679 7.73959 27.1957  255 255 255
21.464 4.22936 39.3639  255 255 255
19.0802 4.51165 41.0612  255 255 255
19.0802 4.51165 41.0612  255 255 255
20.2665 4.18464 39.9197  255 255 255
17.3732 4.62892 41.7341  255 255 255
14.1339 30.4019 34.6649  255 255 255
15.8046 30.899 33.5412  255 255 255
40.8109 30.1813 32.5464  255 255 255
42.9631 28.7627 30.4515  255 255 255
40.203 27.4859 28.3745  255 255 255
9.50842 10.5048 34.9794  255 255 255
9.60702 10.0404 34.6101  255 255 255
46.0132 11.0177 28.7317  255 255 255
46.0118 11.0162 28.7337  255 255 255
18.1401 5.19315 41.1659  255 255 255
41.6512 2.73347 32.3045  255 255 255
15.9948 30.2303 33.4682  255 255 255
16.0945 34.7414 10.5972  255 255 255
18.2371 4.67385 41.6475  255 255 255
11.8914 29.3399 33.6253  255 255 255
11.6838 29.6064 33.3467  255 255 255
13.2425 29.2633 32.9088  255 255 255
42.1697 28.6534 31.5467  255 255 255
45.4144 9.1774 28.4086  255 255 255
14.9048 30.1373 34.4357  255 255 255
40.9684 6.35718 32.7783  255 255 255
10.0101 9.39286 37.1862  255 255 255
12.0141 6.35347 17.7653  255 255 255
41.1784 2.66772 27.2899  255 255 255
45.4886 11.285 29.1324  255 255 255
11.7416 10.1373 10.2637  255 255 255
11.9533 8.93569 7.93383  255 255 255
11.9748 8.52779 7.58735  255 255 255
13.1066 7.21588 -5.69183  255 255 255
10.9488 1.62781 1.58985  255 255 255
10.7172 5.48448 4.68889  255 255 255
11.7568 9.70763 10.3469  255 255 255
11.7129 8.81915 10.3468  255 255 255
12.7943 5.80405 3.13256  255 255 255
12.7943 5.80405 3.13256  255 255 255
11.6549 8.71104 11.0664  255 255 255
14.1717 4.50171 -11.7398  255 255 255
9.04243 2.52239 11.5466  255 255 255
10.9262 9.50903 19.2745  255 255 255
14.1507 5.90955 -12.0146  255 255 255
14.2064 1.34217 -24.869  255 255 255
14.3633 5.33357 -21.2735  255 255 255
14.5068 4.54288 -10.7268  255 255 255
14.5068 4.54288 -10.7268  255 255 255
23.5928 3.24882 -1.95566  255 255 255
13.8781 5.93682 -12.74  255 255 255
13.8154 7.34397 -13.5123  255 255 255
16.0012 13.0924 16.9333  255 255 255
12.0003 9.60609 7.04555  255 255 255
6.4598 9.84491 10.0074  255 255 255
10.2382 6.86435 24.1454  255 255 255
-176.459 6.18386 6.51997  255 255 255
11.5342 3.16096 10.9239  255 255 255
-14.7407 -30.3246 -17.2999  255 255 255
11.0407 10.2896 17.6052  255 255 255
24.1239 1.93837 16.864  255 255 255
12.9881 6.40676 -0.226776  255 255 255
11.7254 10.3692 9.95776  255 255 255
10.5403 8.36628 23.1836  255 255 255
46.1079 11.5926 28.5594  255 255 255
11.8974 27.681 31.6806  255 255 255
9.66398 10.4508 33.984  255 255 255
42.2085 7.20096 18.2659  255 255 255
41.0586 6.4101 32.6844  255 255 255
41.0584 6.41541 32.6848  255 255 255
8.34401 4.83723 32.7457  255 255 255
9.8802 3.64869 32.0963  255 255 255
42.134 3.23029 23.0597  255 255 255
8.45144 4.41762 32.9024  255 255 255
44.0937 10.1964 17.9922  255 255 255
13.1949 7.51873 -7.32253  255 255 255
12.47 4.05969 2.79069  255 255 255
11.5986 8.71579 11.5548  255 255 255
12.7449 6.71041 -0.769458  255 255 255
12.0942 6.56427 7.18581  255 255 255
10.6961 5.58828 -0.346744  255 255 255
10.8441 3.74153 2.8324  255 255 255
11.055 1.59431 0.292444  255 255 255
11.9862 8.29263 7.6595  255 255 255
11.9891 6.28955 8.06405  255 255 255
18.6852 25.4231 -6.53171  255 255 255
18.8577 24.8194 -6.30699  255 255 255
12.4497 12.3929 -9.37625  255 255 255
11.7215 10.4641 10.6055  255 255 255
11.8207 10.2584 10.6607  255 255 255
11.8541 10.1498 9.07951  255 255 255
11.5875 9.06642 10.3864  255 255 255
14.16 8.58635 5.19499  255 255 255
13.885 8.56943 5.43367  255 255 255
12.4075 9.06636 -9.25339  255 255 255
11.9439 8.02233 7.90542  255 255 255
12.8277 7.86069 -2.22788  255 255 255
12.9147 7.33305 -3.9686  255 255 255
12.8967 6.57009 -2.42731  255 255 255
14.2774 6.47703 -19.7551  255 255 255
14.0801 5.95322 -12.1752  255 255 255
14.3268 5.86167 -19.9482  255 255 255
14.4264 4.88277 -21.425  255 255 255
11.5653 4.49819 9.72064  255 255 255
11.8332 4.44503 9.93255  255 255 255
13.8895 2.74722 -21.394  255 255 255
10.7945 3.57367 2.41898  255 255 255
11.6196 3.10084 -6.8975  255 255 255
14.0168 2.31761 -21.2115  255 255 255
13.9705 2.04098 -21.2626  255 255 255
13.6994 1.92475 -21.481  255 255 255
10.9484 2.64689 1.58653  255 255 255
11.972 2.57236 6.07585  255 255 255
12.0175 1.94554 7.28821  255 255 255
22.4674 3.05469 3.61608  255 255 255
21.3178 2.02791 1.02145  255 255 255
23.0746 1.79798 -0.687381  255 255 255
23.6517 2.90198 3.55352  255 255 255
21.776 1.17533 0.584727  255 255 255
15.5481 26.6516 -4.36685  255 255 255
11.777 9.22898 10.1988  255 255 255
11.8522 9.7325 -9.92597  255 255 255
12.9973 6.88424 -4.4277  255 255 255
12.7366 6.76178 -0.77255  255 255 255
12.6097 5.67141 5.27469  255 255 255
11.4619 4.03611 -5.96564  255 255 255
11.4032 4.03383 -5.80222  255 255 255
11.6085 4.17401 9.85131  255 255 255
11.6086 4.17401 9.85131  255 255 255
13.8407 1.77201 -21.4263  255 255 255
12.6636 1.92837 -2.67291  255 255 255
17.8384 2.46925 -2.24135  255 255 255
11.1353 1.20557 0.369394  255 255 255
11.9784 1.11143 -1.88379  255 255 255
12.1634 1.04278 0.640054  255 255 255
23.6643 2.93207 3.52612  255 255 255
18.3912 1.15511 7.56824  255 255 255
11.5208 4.86522 9.88324  255 255 255
10.8342 2.93178 5.38673  255 255 255
12.0868 2.9037 8.37671  255 255 255
12.4524 2.2965 7.89347  255 255 255
11.5915 1.48291 4.84208  255 255 255
22.379 3.14712 3.65754  255 255 255
22.379 3.14712 3.65754  255 255 255
22.379 3.14713 3.65754  255 255 255
22.409 3.03223 3.692  255 255 255
21.7113 1.70553 0.595225  255 255 255
16.5871 22.3415 -5.65919  255 255 255
3.75876 12.5641 7.68505  255 255 255
11.7575 8.70354 10.352  255 255 255
12.0824 8.39207 7.38805  255 255 255
12.102 7.76851 7.19348  255 255 255
12.1448 7.65592 8.09974  255 255 255
11.4773 3.74681 -5.61173  255 255 255
12.0351 1.93227 5.31263  255 255 255
21.2678 1.98451 0.933516  255 255 255
10.6073 -12.3167 -9.27123  255 255 255
11.0475 4.07769 -9.3383  255 255 255
12.7547 2.78756 7.74498  255 255 255
13.832 3.79959 -14.0877  255 255 255
12.2591 3.40422 8.05405  255 255 255
12.2258 1.54573 7.31906  255 255 255
12.1617 1.17614 6.45368  255 255 255
13.9599 6.80112 -16.2859  255 255 255
23.2162 3.02916 3.98175  255 255 255
11.994 8.49477 8.02664  255 255 255
11.4421 10.1095 7.3898  255 255 255
23.3755 2.85973 -1.25217  255 255 255
11.7364 4.25466 7.08838  255 255 255
10.8693 11.7282 17.5048  255 255 255
10.8859 8.78016 19.3472  255 255 255
11.9221 8.61149 8.31623  255 255 255
12.1 8.22539 7.76549  255 255 255
9.47423 3.88126 19.9926  255 255 255
12.0235 7.7712 7.94659  255 255 255
15.3409 3.3179 25.3044  255 255 255
15.2487 -4.63744 14.9885  255 255 255
11.7849 10.5483 8.94334  255 255 255
11.7394 8.25283 10.0766  255 255 255
13.6461 29.0198 9.60781  255 255 255
10.0092 11.2514 29.0854  255 255 255
10.2766 6.7953 25.0426  255 255 255
16.6846 2.87997 14.6497  255 255 255
9.57552 2.30845 19.0904  255 255 255
16.207 22.4741 10.0052  255 255 255
12.874 6.79073 -2.45243  255 255 255
12.763 6.68206 -1.01985  255 255 255
12.763 6.68206 -1.01985  255 255 255
12.9104 6.28624 -3.08927  255 255 255
14.0054 5.59313 -19.0193  255 255 255
11.5697 4.49327 9.52109  255 255 255
11.5969 4.49782 9.51636  255 255 255
2.73855 2.09297 -0.617348  255 255 255
11.5347 2.70482 -6.63908  255 255 255
12.4835 2.46802 7.49823  255 255 255
12.4835 2.46802 7.49823  255 255 255
12.1949 1.2155 6.82666  255 255 255
15.0291 26.3684 -4.97251  255 255 255
14.1066 5.43074 -14.0132  255 255 255
11.6396 4.97484 9.63358  255 255 255
11.4429 3.87935 -5.80187  255 255 255
10.8148 1.53316 2.89836  255 255 255
23.1788 3.04817 4.07154  255 255 255
18.2868 1.10701 7.89148  255 255 255
19.9385 1.37786 6.5379  255 255 255
11.9701 5.31009 8.09156  255 255 255
13.8818 4.53737 -12.9753  255 255 255
11.9742 6.24624 6.83959  255 255 255
10.7554 9.77527 6.03341  255 255 255
16.9357 13.3438 16.8731  255 255 255
16.9357 13.3438 16.8731  255 255 255
10.8635 11.7206 20.7439  255 255 255
9.81585 10.4472 31.3092  255 255 255
11.0095 9.29355 17.7188  255 255 255
11.7846 8.67428 10.108  255 255 255
11.7846 8.67428 10.108  255 255 255
9.29765 6.83283 22.3246  255 255 255
16.1226 3.1445 15.1489  255 255 255
16.5787 2.02192 29.0444  255 255 255
15.5746 11.9354 16.9381  255 255 255
10.0422 10.5425 30.0273  255 255 255
9.91989 10.4594 30.1372  255 255 255
9.89639 10.2782 30.9046  255 255 255
9.98067 10.3003 29.8191  255 255 255
9.81688 9.90592 32.3337  255 255 255
9.97352 9.75396 31.2787  255 255 255
12.2664 7.23042 8.21901  255 255 255
11.7695 2.35895 -0.818079  255 255 255
15.6995 2.03238 23.8794  255 255 255
18.3747 1.80159 22.63  255 255 255
-197.356 -209.777 -142.543  255 255 255
9.8343 10.592 32.0603  255 255 255
9.95152 10.2877 30.4061  255 255 255
9.78415 10.2228 31.1934  255 255 255
9.78627 9.73186 32.1188  255 255 255
10.0015 3.41962 14.3221  255 255 255
16.6774 2.38627 14.9124  255 255 255
18.9399 1.8593 22.6172  255 255 255
13.8495 29.3745 9.8532  255 255 255
10.2989 11.116 22.3938  255 255 255
9.79869 9.6358 32.2383  255 255 255
9.72626 3.59269 32.1698  255 255 255
3.63073 -0.556107 27.4869  255 255 255
15.8223 2.1605 25.9352  255 255 255
15.5062 2.16697 27.9589  255 255 255
20.3317 2.01165 22.6268  255 255 255
23.9542 2.23974 22.7754  255 255 255
13.6655 29.4525 10.3018  255 255 255
13.5425 29.2536 9.99492  255 255 255
9.95287 10.4146 30.2426  255 255 255
9.78872 9.85949 32.238  255 255 255
11.3138 7.69541 15.4001  255 255 255
9.83909 5.66326 17.4867  255 255 255
9.74064 4.99127 18.2043  255 255 255
15.37 3.15032 26.8532  255 255 255
15.6908 2.23404 27.396  255 255 255
24.0061 2.23411 22.7799  255 255 255
16.6043 11.4132 16.9801  255 255 255
9.81723 9.96104 31.4052  255 255 255
9.83517 9.67793 31.5814  255 255 255
9.83517 9.67793 31.5814  255 255 255
9.96861 9.65141 30.6256  255 255 255
15.8895 3.11676 25.8639  255 255 255
15.504 12.0638 17.0158  255 255 255
15.0458 11.5969 16.9739  255 255 255
17.4534 1.57945 17.7155  255 255 255
10.0022 7.19686 29.3594  255 255 255
10.0061 7.60297 27.5233  255 255 255
10.1996 7.50352 25.5942  255 255 255
15.0909 2.23876 23.5916  255 255 255
14.932 1.80554 24.3868  255 255 255
12.2764 6.71511 15.8502  255 255 255
9.11024 2.39494 13.9964  255 255 255
10.5189 12.77 19.1647  255 255 255
15.9728 2.36432 11.8499  255 255 255
15.1257 5.76283 19.2345  255 255 255
6.22272 51.2116 -52.1493  255 255 255
16.0251 1.65577 15.1142  255 255 255
16.8718 9.54923 17.2404  255 255 255
12.2682 10.3697 7.96729  255 255 255
15.9521 4.11633 16.7326  255 255 255
11.016 2.36088 3.34271  255 255 255
15.1286 8.92577 16.718  255 255 255
15.1286 8.92577 16.718  255 255 255
16.8898 1.95759 21.9964  255 255 255
17.5569 1.71039 22.1029  255 255 255
19.8847 1.7669 22.0406  255 255 255
17.6236 1.77091 22.3254  255 255 255
18.0258 1.74955 22.4053  255 255 255
19.3338 1.81826 22.4205  255 255 255
19.3762 1.86495 22.4667  255 255 255
10.8331 9.62572 17.908  255 255 255
11.5699 8.09909 12.773  255 255 255
18.5767 1.76037 22.1491  255 255 255
18.1732 1.76483 22.5773  255 255 255
13.9048 11.0275 16.0807  255 255 255
12.0219 8.05934 14.7299  255 255 255
18.297 1.77042 22.7297  255 255 255
17.6935 1.745 22.3231  255 255 255
11.1627 6.05087 8.62669  255 255 255
-194.903 -209.405 -301.082  255 255 255
47.6812 19.4804 -85.8468  255 255 255
22.6841 19.083 -81.3773  255 255 255
41.8081 -1.99562 -55.652  255 255 255
11.5348 8.02428 14.9118  255 255 255
15.7426 4.00047 17.1913  255 255 255
10.3863 3.14027 14.4759  255 255 255
10.8932 9.94343 18.037  255 255 255
11.1386 8.50448 16.5698  255 255 255
23.3036 20.3964 -79.6455  255 255 255
53.7409 -2.34491 -78.9496  255 255 255
11.0466 9.68632 17.6656  255 255 255
10.8533 9.52439 19.6499  255 255 255
32.2225 -5.29993 16.472  255 255 255
41.5918 12.0186 18.3512  255 255 255
54.7296 9.35257 -53.5817  255 255 255
53.4637 5.21134 -55.6469  255 255 255
12.9798 5.51012 0.543917  255 255 255
42.0126 0.0931619 -51.0919  255 255 255
42.4044 0.142703 -48.3552  255 255 255
